# .PCD v0.7 - Point Cloud Data file format
VERSION 0.7
FIELDS x y z intensity
SIZE 4 4 4 4
TYPE F F F F
COUNT 1 1 1 1
WIDTH 747
HEIGHT 1
VIEWPOINT 0 0 0 1 0 0 0
POINTS 747
DATA ascii
-0.40004873275756836 0.5868589878082275 -0.1889394372701645 0.0
-0.4107990860939026 0.586997389793396 -0.19059506058692932 0.0
-0.42174094915390015 0.5871379375457764 -0.19230917096138 0.0
-0.4328833520412445 0.587281346321106 -0.1940840780735016 0.0
-0.4442349970340729 0.5874274373054504 -0.1959218829870224 0.0
-0.4558054208755493 0.5875762701034546 -0.19782496988773346 0.0
-0.46760451793670654 0.5877278447151184 -0.19979581236839294 0.0
-0.4796431064605713 0.5878828167915344 -0.2018372118473053 0.0
-0.49193185567855835 0.5880406498908997 -0.20395174622535706 0.0
-0.5044829845428467 0.588202178478241 -0.20614264905452728 0.0
-0.5173085927963257 0.5883671045303345 -0.20841290056705475 0.0
-0.530421793460846 0.5885357856750488 -0.21076591312885284 0.0
-0.5438365340232849 0.5887082815170288 -0.2132052183151245 0.0
-0.5575677752494812 0.5888851284980774 -0.21573469042778015 0.0
-0.571630597114563 0.5890659689903259 -0.21835818886756897 0.0
-0.5860419273376465 0.5892512798309326 -0.22108009457588196 0.0
-0.6008191704750061 0.589441180229187 -0.22390490770339966 0.0
-0.6159815192222595 0.5896363258361816 -0.2268376499414444 0.0
-0.6315486431121826 0.5898365378379822 -0.2298833727836609 0.0
-0.6475417613983154 0.5900421142578125 -0.23304763436317444 0.0
0.2439812868833542 0.7587633728981018 -0.18269899487495422 0.0
0.22803650796413422 0.7402734756469727 -0.17755864560604095 0.0
0.2129622846841812 0.7227933406829834 -0.172725111246109 0.0
0.19868463277816772 0.7062361836433411 -0.168172225356102 0.0
0.18513862788677216 0.690528154373169 -0.16387756168842316 0.0
0.17226524651050568 0.6755998730659485 -0.15982022881507874 0.0
0.16001208126544952 0.6613907217979431 -0.1559819132089615 0.0
0.14833205938339233 0.6478465795516968 -0.15234622359275818 0.0
0.13718241453170776 0.6349172592163086 -0.14889806509017944 0.0
0.12652461230754852 0.6225578188896179 -0.14562389254570007 0.0
0.11632410436868668 0.6107292771339417 -0.14251188933849335 0.0
0.10654892027378082 0.5993936657905579 -0.13955064117908478 0.0
0.09717029333114624 0.5885178446769714 -0.1367301642894745 0.0
0.08854365348815918 0.5805742144584656 -0.13462163507938385 0.0
0.0812690407037735 0.5806677937507629 -0.1344015747308731 0.0
0.07401707768440247 0.5807610750198364 -0.1342024803161621 0.0
0.06678549200296402 0.5808541774749756 -0.13402420282363892 0.0
0.059571992605924606 0.5809468626976013 -0.133866548538208 0.0
0.05237436667084694 0.581039547920227 -0.1337294727563858 0.0
0.045190371572971344 0.5811318755149841 -0.13361279666423798 0.0
0.03801783546805382 0.5812243223190308 -0.13351655006408691 0.0
0.03085453435778618 0.5813164114952087 -0.1334405243396759 0.0
0.02369830384850502 0.5814083814620972 -0.13338468968868256 0.0
0.016546985134482384 0.5815004706382751 -0.13334910571575165 0.0
0.009398400783538818 0.5815925002098083 -0.13333363831043243 0.0
0.00225039292126894 0.5816842317581177 -0.13333827257156372 0.0
-0.004899193532764912 0.5817764401435852 -0.13336312770843506 0.0
-0.012052521109580994 0.5818683505058289 -0.1334080696105957 0.0
-0.01921175979077816 0.5819605588912964 -0.13347327709197998 0.0
-0.026379074901342392 0.5820526480674744 -0.13355866074562073 0.0
-0.03355666249990463 0.582145094871521 -0.13366441428661346 0.0
-0.04074670001864433 0.5822375416755676 -0.133790522813797 0.0
-0.04795141518115997 0.5823302268981934 -0.13393713533878326 0.0
-0.05517302080988884 0.5824230909347534 -0.13410431146621704 0.0
-0.062413789331912994 0.5825163722038269 -0.13429227471351624 0.0
-0.06967595964670181 0.5826097130775452 -0.13450105488300323 0.0
-0.07696185261011124 0.5827034115791321 -0.13473087549209595 0.0
-0.0842737928032875 0.5827974081039429 -0.1349819004535675 0.0
-0.09161417186260223 0.5828919410705566 -0.135254368185997 0.0
-0.09898534417152405 0.5829868316650391 -0.1355484426021576 0.0
-0.10638973861932755 0.5830820798873901 -0.13586433231830597 0.0
-0.11382986605167389 0.5831778049468994 -0.13620233535766602 0.0
-0.12130822241306305 0.5832739472389221 -0.13656267523765564 0.0
-0.12882739305496216 0.5833706259727478 -0.1369456797838211 0.0
-0.13638998568058014 0.5834677815437317 -0.1373516172170639 0.0
-0.14399877190589905 0.5835658311843872 -0.13778090476989746 0.0
-0.1516563594341278 0.5836641788482666 -0.13823376595973969 0.0
-0.15936563909053802 0.5837633609771729 -0.1387106478214264 0.0
-0.1671295315027237 0.583863377571106 -0.1392119824886322 0.0
-0.17495082318782806 0.5839638113975525 -0.1397380530834198 0.0
-0.1828327625989914 0.5840653777122498 -0.14028945565223694 0.0
-0.19077825546264648 0.5841674208641052 -0.14086653292179108 0.0
-0.19879066944122314 0.5842705965042114 -0.14146986603736877 0.0
-0.20687316358089447 0.5843744277954102 -0.14209990203380585 0.0
-0.21502932906150818 0.584479570388794 -0.14275731146335602 0.0
-0.2232624590396881 0.5845853686332703 -0.1434425264596939 0.0
-0.23157626390457153 0.5846922397613525 -0.14415621757507324 0.0
-0.23997454345226288 0.5848003029823303 -0.14489908516407013 0.0
-0.24846108257770538 0.5849094390869141 -0.1456717550754547 0.0
-0.25703996419906616 0.5850198268890381 -0.1464749574661255 0.0
-0.26571521162986755 0.5851313471794128 -0.14730940759181976 0.0
-0.27449122071266174 0.5852442383766174 -0.1481759399175644 0.0
-0.28337252140045166 0.5853585600852966 -0.14907540380954742 0.0
-0.29236358404159546 0.5854741334915161 -0.15000861883163452 0.0
-0.3014693260192871 0.5855912566184998 -0.1509765386581421 0.0
-0.3106948137283325 0.5857100486755371 -0.15198016166687012 0.0
-0.3200451135635376 0.5858302712440491 -0.1530204564332962 0.0
-0.32952582836151123 0.5859523415565491 -0.15409855544567108 0.0
-0.3391423523426056 0.5860757827758789 -0.15521547198295593 0.0
-0.3489009141921997 0.5862013101577759 -0.1563725620508194 0.0
-0.35880759358406067 0.5863288044929504 -0.15757101774215698 0.0
-0.3688688576221466 0.5864582657814026 -0.15881216526031494 0.0
-0.37909135222435 0.5865897536277771 -0.16009736061096191 0.0
-0.38948220014572144 0.5867233276367188 -0.1614280790090561 0.0
-0.40004900097846985 0.5868593454360962 -0.16280597448349 0.0
-0.4107992649078369 0.5869976282119751 -0.16423256695270538 0.0
-0.42174115777015686 0.5871382355690002 -0.16570959985256195 0.0
-0.4328835904598236 0.5872817039489746 -0.1672389954328537 0.0
-0.4442351162433624 0.58742755651474 -0.16882255673408508 0.0
-0.45580562949180603 0.5875765085220337 -0.1704624593257904 0.0
-0.46760478615760803 0.5877282023429871 -0.17216072976589203 0.0
-0.479643315076828 0.5878830552101135 -0.17391972243785858 0.0
-0.4919322729110718 0.5880411863327026 -0.17574186623096466 0.0
-0.5044832229614258 0.5882024765014648 -0.17762966454029083 0.0
-0.5173088908195496 0.5883675217628479 -0.17958593368530273 0.0
-0.5304222106933594 0.588536262512207 -0.1816135048866272 0.0
-0.5438369512557983 0.588708758354187 -0.18371541798114777 0.0
-0.5575679540634155 0.5888853073120117 -0.1858949363231659 0.0
-0.5716309547424316 0.5890663266181946 -0.1881556212902069 0.0
-0.5860421061515808 0.5892515182495117 -0.19050098955631256 0.0
-0.6008197069168091 0.5894417762756348 -0.19293519854545593 0.0
-0.615981936454773 0.5896367430686951 -0.19546224176883698 0.0
-0.6315489411354065 0.589836835861206 -0.19808664917945862 0.0
-0.6475423574447632 0.5900426506996155 -0.20081332325935364 0.0
-0.6639845967292786 0.5902541279792786 -0.20364724099636078 0.0
-0.6809002757072449 0.5904718041419983 -0.20659399032592773 0.0
-0.6983150243759155 0.5906956791877747 -0.20965930819511414 0.0
-0.7162573933601379 0.5909265279769897 -0.2128496766090393 0.0
-0.7347567081451416 0.5911642909049988 -0.21617166697978973 0.0
-0.758976399898529 0.595434844493866 -0.22112758457660675 0.0
-0.7862435579299927 0.6013650894165039 -0.22690139710903168 0.0
-0.8149780631065369 0.6076148748397827 -0.23302114009857178 0.0
1.2174038887023926 0.007480814587324858 -0.23497708141803741 0.0
1.2163046598434448 0.05235005170106888 -0.2349778264760971 0.0
0.24398192763328552 0.7587653398513794 -0.15383517742156982 0.0
0.2280370444059372 0.7402752041816711 -0.14950691163539886 0.0
0.2129625678062439 0.7227942943572998 -0.1454368382692337 0.0
0.1986851841211319 0.7062380909919739 -0.14160345494747162 0.0
0.1851390302181244 0.6905297040939331 -0.13798721134662628 0.0
0.17226563394069672 0.6756013631820679 -0.1345708817243576 0.0
0.160012349486351 0.6613918542861938 -0.13133889436721802 0.0
0.14833232760429382 0.6478477120399475 -0.12827759981155396 0.0
0.13718250393867493 0.6349176168441772 -0.12537404894828796 0.0
0.12652488052845 0.6225590705871582 -0.12261735647916794 0.0
0.11632433533668518 0.6107304692268372 -0.11999698728322983 0.0
0.10654906183481216 0.5993945002555847 -0.11750350892543793 0.0
0.09717050194740295 0.5885190367698669 -0.11512871086597443 0.0
0.08854372054338455 0.5805746912956238 -0.11335314810276031 0.0
0.08126908540725708 0.5806680917739868 -0.11316782981157303 0.0
0.07401713728904724 0.5807614922523499 -0.11300020664930344 0.0
0.066785529255867 0.5808544754981995 -0.11285007745027542 0.0
0.059572044759988785 0.5809473991394043 -0.11271736770868301 0.0
0.052374400198459625 0.5810399055480957 -0.11260191351175308 0.0
0.04519041255116463 0.5811324119567871 -0.11250371485948563 0.0
0.03801786154508591 0.5812247395515442 -0.1124226376414299 0.0
0.03085455670952797 0.5813168287277222 -0.11235862225294113 0.0
0.023698318749666214 0.5814087390899658 -0.11231160908937454 0.0
0.01654699072241783 0.5815007090568542 -0.11228161305189133 0.0
0.009398404508829117 0.5815927982330322 -0.1122686043381691 0.0
0.002250394318252802 0.5816846489906311 -0.11227253079414368 0.0
-0.004899195861071348 0.5817766785621643 -0.11229342967271805 0.0
-0.012052525766193867 0.581868588924408 -0.11233127862215042 0.0
-0.019211765378713608 0.5819606781005859 -0.11238615214824677 0.0
-0.026379093527793884 0.5820530652999878 -0.11245810985565186 0.0
-0.03355667367577553 0.5821452736854553 -0.11254710704088211 0.0
-0.040746718645095825 0.5822378396987915 -0.11265330761671066 0.0
-0.04795144125819206 0.582330584526062 -0.11277676373720169 0.0
-0.05517305061221123 0.5824233889579773 -0.11291753500699997 0.0
-0.06241380423307419 0.5825164914131165 -0.11307576298713684 0.0
-0.0696759894490242 0.5826098918914795 -0.11325156688690186 0.0
-0.07696191221475601 0.5827037692070007 -0.11344511806964874 0.0
-0.08427385985851288 0.5827978849411011 -0.11365649849176407 0.0
-0.09161421656608582 0.5828922390937805 -0.11388588696718216 0.0
-0.09898537397384644 0.5829870104789734 -0.11413347721099854 0.0
-0.10638979822397232 0.583082377910614 -0.1143994852900505 0.0
-0.11382993310689926 0.5831781029701233 -0.1146840900182724 0.0
-0.12130827456712723 0.5832741856575012 -0.11498748511075974 0.0
-0.12882748246192932 0.5833709836006165 -0.11531000584363937 0.0
-0.1363900899887085 0.5834681987762451 -0.11565181612968445 0.0
-0.1439988613128662 0.5835661888122559 -0.11601327359676361 0.0
-0.15165647864341736 0.5836646556854248 -0.11639460176229477 0.0
-0.15936575829982758 0.5837637782096863 -0.11679614335298538 0.0
-0.16712959110736847 0.5838636159896851 -0.11721822619438171 0.0
-0.1749510020017624 0.5839644074440002 -0.1176612600684166 0.0
-0.18283288180828094 0.5840657353401184 -0.11812551319599152 0.0
-0.19077837467193604 0.5841678380966187 -0.1186114102602005 0.0
-0.1987907439470291 0.5842708349227905 -0.11911939829587936 0.0
-0.20687329769134521 0.5843747854232788 -0.11964992433786392 0.0
-0.21502947807312012 0.5844799280166626 -0.12020347267389297 0.0
-0.22326259315013885 0.5845857262611389 -0.12078043073415756 0.0
-0.23157645761966705 0.5846927165985107 -0.12138140201568604 0.0
-0.23997467756271362 0.5848006010055542 -0.1220068708062172 0.0
-0.24846121668815613 0.5849097371101379 -0.12265745550394058 0.0
-0.2570400834083557 0.585020124912262 -0.12333376705646515 0.0
-0.2657153904438019 0.5851317644119263 -0.12403640151023865 0.0
-0.27449148893356323 0.5852447748184204 -0.12476605921983719 0.0
-0.28337275981903076 0.5853590369224548 -0.1255234181880951 0.0
-0.29236382246017456 0.5854746103286743 -0.12630918622016907 0.0
-0.3014695346355438 0.5855916738510132 -0.12712417542934418 0.0
-0.3106950521469116 0.5857104659080505 -0.12796925008296967 0.0
-0.3200452923774719 0.585830569267273 -0.12884515523910522 0.0
-0.32952603697776794 0.5859526991844177 -0.12975294888019562 0.0
-0.33914270997047424 0.5860763788223267 -0.1306934654712677 0.0
-0.34890124201774597 0.5862019062042236 -0.13166773319244385 0.0
-0.35880786180496216 0.5863292813301086 -0.13267682492733002 0.0
-0.36886903643608093 0.5864585638046265 -0.13372184336185455 0.0
-0.3790915906429291 0.5865901112556458 -0.13480401039123535 0.0
-0.3894824683666229 0.5867236852645874 -0.13592450320720673 0.0
-0.4000492990016937 0.5868598222732544 -0.1370847225189209 0.0
-0.4107995331287384 0.5869980454444885 -0.13828592002391815 0.0
-0.4217416048049927 0.587138831615448 -0.13952964544296265 0.0
-0.43288397789001465 0.5872822403907776 -0.14081740379333496 0.0
-0.44423550367355347 0.587428092956543 -0.14215077459812164 0.0
-0.4558059275150299 0.5875768661499023 -0.14353156089782715 0.0
-0.4676051735877991 0.58772873878479 -0.14496155083179474 0.0
-0.4796438217163086 0.587883710861206 -0.1464426964521408 0.0
-0.49193263053894043 0.5880416035652161 -0.14797692000865936 0.0
-0.504483699798584 0.5882030129432678 -0.14956648647785187 0.0
-0.5173093676567078 0.5883679986000061 -0.15121367573738098 0.0
-0.5304226875305176 0.5885367393493652 -0.1529209166765213 0.0
-0.543837308883667 0.5887091159820557 -0.1546907126903534 0.0
-0.5575685501098633 0.5888859629631042 -0.15652596950531006 0.0
-0.5716314911842346 0.5890668630599976 -0.15842947363853455 0.0
-0.5860428214073181 0.5892521739006042 -0.16040435433387756 0.0
-0.6008203029632568 0.5894423127174377 -0.16245394945144653 0.0
-0.6159823536872864 0.5896371006965637 -0.16458170115947723 0.0
-0.6315494775772095 0.589837372303009 -0.16679152846336365 0.0
-0.6475429534912109 0.5900431871414185 -0.16908742487430573 0.0
-0.6639850735664368 0.590254545211792 -0.17147359251976013 0.0
-0.6809006929397583 0.5904721617698669 -0.1739547699689865 0.0
-0.6983156800270081 0.5906962156295776 -0.17653585970401764 0.0
-0.7162579894065857 0.590927004814148 -0.17922216653823853 0.0
-0.7347576022148132 0.5911650061607361 -0.1820194125175476 0.0
-0.7589768767356873 0.5954352021217346 -0.18619222939014435 0.0
-0.7862444519996643 0.6013657450675964 -0.19105395674705505 0.0
-0.814978837966919 0.6076154708862305 -0.19620683789253235 0.0
-0.8453105688095093 0.6142123937606812 -0.201676607131958 0.0
-0.8773871064186096 0.6211888790130615 -0.20749236643314362 0.0
-0.9113733768463135 0.6285805702209473 -0.21368663012981415 0.0
-0.9474576711654663 0.6364288926124573 -0.22029659152030945 0.0
-0.9858512878417969 0.6447793245315552 -0.22736389935016632 0.0
-1.026795744895935 0.6536843180656433 -0.2349362075328827 0.0
1.2275879383087158 -0.05283568799495697 -0.19325122237205505 0.0
1.2043110132217407 -0.0370129831135273 -0.18950095772743225 0.0
1.1941213607788086 -0.02201545611023903 -0.18784083425998688 0.0
1.1891433000564575 -0.00730715598911047 -0.18702949583530426 0.0
1.1878939867019653 0.007299480028450489 -0.18683302402496338 0.0
1.190101146697998 0.02194133587181568 -0.18720842897891998 0.0
1.1963084936141968 0.03676703944802284 -0.18824175000190735 0.0
1.2087690830230713 0.05202571675181389 -0.19028867781162262 0.0
0.24398256838321686 0.7587673664093018 -0.1253550797700882 0.0
0.228037491440773 0.7402766942977905 -0.12182803452014923 0.0
0.2129630446434021 0.7227959036827087 -0.11851150542497635 0.0
0.19868558645248413 0.7062395215034485 -0.11538778990507126 0.0
0.1851392537355423 0.69053053855896 -0.11244094371795654 0.0
0.1722659468650818 0.6756026148796082 -0.1096571609377861 0.0
0.16001272201538086 0.661393404006958 -0.10702358186244965 0.0
0.14833250641822815 0.6478485465049744 -0.10452892631292343 0.0
0.13718284666538239 0.634919285774231 -0.10216306149959564 0.0
0.12652510404586792 0.6225602030754089 -0.09991664439439774 0.0
0.11632443219423294 0.6107310056686401 -0.09778130799531937 0.0
0.10654919594526291 0.599395215511322 -0.09574948996305466 0.0
0.09717061370611191 0.5885196924209595 -0.09381434321403503 0.0
0.08854376524686813 0.5805749893188477 -0.09236744791269302 0.0
0.08126913756132126 0.5806685090065002 -0.09221645444631577 0.0
0.07401715964078903 0.5807616710662842 -0.09207982569932938 0.0
0.06678557395935059 0.5808548927307129 -0.09195751696825027 0.0
0.05957207828760147 0.580947756767273 -0.09184937179088593 0.0
0.052374422550201416 0.5810401439666748 -0.09175528585910797 0.0
0.04519042372703552 0.5811325311660767 -0.09167524427175522 0.0
0.0380178801715374 0.5812249779701233 -0.09160920232534409 0.0
0.03085457719862461 0.5813171863555908 -0.09155705571174622 0.0
0.023698333650827408 0.5814090967178345 -0.09151873737573624 0.0
0.016547003760933876 0.5815011262893677 -0.09149430692195892 0.0
0.009398410096764565 0.5815931558609009 -0.0914836972951889 0.0
0.00225039548240602 0.581684947013855 -0.09148687869310379 0.0
-0.004899199120700359 0.5817770957946777 -0.09150393307209015 0.0
-0.012052536942064762 0.5818691253662109 -0.09153479337692261 0.0
-0.019211778417229652 0.5819610953330994 -0.09157948940992355 0.0
-0.02637910097837448 0.5820532441139221 -0.09163808822631836 0.0
-0.03355669602751732 0.5821456909179688 -0.0917106419801712 0.0
-0.04074674844741821 0.5822382569313049 -0.09179718792438507 0.0
-0.04795147106051445 0.5823309421539307 -0.09189777821302414 0.0
-0.05517307668924332 0.5824236869812012 -0.09201247245073318 0.0
-0.06241385266184807 0.5825169086456299 -0.09214143455028534 0.0
-0.06967604905366898 0.5826104283332825 -0.09228470176458359 0.0
-0.076961949467659 0.5827040672302246 -0.09244238585233688 0.0
-0.08427391201257706 0.5827982425689697 -0.09261464327573776 0.0
-0.09161427617073059 0.5828925967216492 -0.09280156344175339 0.0
-0.09898544102907181 0.5829874277114868 -0.09300332516431808 0.0
-0.1063898578286171 0.5830826759338379 -0.0932200700044632 0.0
-0.11382997781038284 0.5831783413887024 -0.09345196932554245 0.0
-0.1213083565235138 0.5832745432853699 -0.09369922429323196 0.0
-0.1288275420665741 0.5833712220191956 -0.09396200627088547 0.0
-0.13639016449451447 0.5834685564041138 -0.09424055367708206 0.0
-0.1439989060163498 0.5835663080215454 -0.09453506022691727 0.0
-0.1516565978527069 0.5836650729179382 -0.09484583884477615 0.0
-0.15936589241027832 0.5837642550468445 -0.09517304599285126 0.0
-0.16712971031665802 0.5838640332221985 -0.09551697969436646 0.0
-0.17495104670524597 0.5839645862579346 -0.09587795287370682 0.0
-0.1828329712152481 0.5840660333633423 -0.09625627845525742 0.0
-0.19077855348587036 0.5841683745384216 -0.09665225446224213 0.0
-0.19879089295864105 0.584271252155304 -0.09706617891788483 0.0
-0.20687349140644073 0.5843753814697266 -0.09749850630760193 0.0
-0.2150295376777649 0.5844801068305969 -0.09794950485229492 0.0
-0.2232627123594284 0.5845860242843628 -0.0984196737408638 0.0
-0.231576606631279 0.5846931338310242 -0.0989094004034996 0.0
-0.23997490108013153 0.584801197052002 -0.09941909462213516 0.0
-0.24846145510673523 0.5849103331565857 -0.09994924068450928 0.0
-0.25704026222229004 0.5850205421447754 -0.10050030797719955 0.0
-0.2657155990600586 0.5851321816444397 -0.10107287019491196 0.0
-0.2744916081428528 0.5852450132369995 -0.10166741162538528 0.0
-0.2833728790283203 0.5853593349456787 -0.10228455811738968 0.0
-0.2923639714717865 0.5854749083518982 -0.10292485356330872 0.0
-0.30146971344947815 0.5855920314788818 -0.10358896851539612 0.0
-0.3106951415538788 0.5857106447219849 -0.10427756607532501 0.0
-0.32004550099372864 0.5858309864997864 -0.1049913540482521 0.0
-0.3295261561870575 0.585952877998352 -0.1057310402393341 0.0
-0.3391428589820862 0.5860766768455505 -0.10649744421243668 0.0
-0.3489014208316803 0.5862022042274475 -0.10729134827852249 0.0
-0.35880807042121887 0.5863295793533325 -0.10811362415552139 0.0
-0.3688693046569824 0.5864590406417847 -0.1089651957154274 0.0
-0.37909191846847534 0.5865906476974487 -0.10984702408313751 0.0
-0.38948288559913635 0.5867243409156799 -0.11076010018587112 0.0
-0.40004962682724 0.5868602991104126 -0.1117054894566536 0.0
-0.4107997715473175 0.5869983434677124 -0.11268427968025208 0.0
-0.421741783618927 0.5871390700340271 -0.11369772255420685 0.0
-0.43288424611091614 0.5872825980186462 -0.11474710702896118 0.0
-0.4442359209060669 0.587428629398346 -0.11583366245031357 0.0
-0.45580634474754333 0.5875774025917053 -0.11695880442857742 0.0
-0.4676055908203125 0.5877292156219482 -0.11812405288219452 0.0
-0.4796440899372101 0.5878840088844299 -0.11933093518018723 0.0
-0.4919329583644867 0.5880420207977295 -0.12058113515377045 0.0
-0.5044841170310974 0.588203489780426 -0.12187643349170685 0.0
-0.517309844493866 0.5883685350418091 -0.12321869283914566 0.0
-0.530423104763031 0.5885372757911682 -0.12460985034704208 0.0
-0.5438379049301147 0.588709831237793 -0.12605203688144684 0.0
-0.5575689673423767 0.5888863801956177 -0.1275474727153778 0.0
-0.5716317296028137 0.5890671610832214 -0.1290985345840454 0.0
-0.586043119430542 0.5892525315284729 -0.130707785487175 0.0
-0.6008205413818359 0.5894425511360168 -0.13237792253494263 0.0
-0.6159828305244446 0.5896375775337219 -0.13411180675029755 0.0
-0.6315500140190125 0.5898378491401672 -0.13591252267360687 0.0
-0.6475434899330139 0.5900437235832214 -0.13778336346149445 0.0
-0.6639858484268188 0.5902552604675293 -0.13972781598567963 0.0
-0.6809014081954956 0.5904728174209595 -0.14174962043762207 0.0
-0.6983163356781006 0.5906968116760254 -0.1438528448343277 0.0
-0.7162584662437439 0.5909274220466614 -0.14604179561138153 0.0
-0.7347581386566162 0.5911654233932495 -0.14832116663455963 0.0
-0.7589776515960693 0.5954358577728271 -0.1517215073108673 0.0
-0.7862452268600464 0.6013663411140442 -0.15568313002586365 0.0
-0.814979612827301 0.6076160073280334 -0.15988202393054962 0.0
-0.8453113436698914 0.6142129898071289 -0.16433915495872498 0.0
-0.8773879408836365 0.621189534664154 -0.16907821595668793 0.0
-0.9113747477531433 0.6285815238952637 -0.1741258054971695 0.0
-0.9474589228630066 0.6364297270774841 -0.17951199412345886 0.0
-0.9858523011207581 0.6447799801826477 -0.18527084589004517 0.0
-1.0267971754074097 0.6536852121353149 -0.19144132733345032 0.0
-1.070570468902588 0.6632056832313538 -0.19806796312332153 0.0
-1.1174901723861694 0.6734105944633484 -0.20520195364952087 0.0
-1.1893832683563232 0.6969544291496277 -0.21681420505046844 0.0
1.2183351516723633 -0.052437443286180496 -0.14869190752506256 0.0
0.24397896230220795 0.7587561011314392 -0.09718213230371475 0.0
0.2280343472957611 0.7402664422988892 -0.09444786608219147 0.0
0.21295996010303497 0.7227854132652283 -0.09187664836645126 0.0
0.19868271052837372 0.7062293291091919 -0.08945497870445251 0.0
0.18513676524162292 0.690521240234375 -0.08717050403356552 0.0
0.1722635179758072 0.6755930781364441 -0.08501230925321579 0.0
0.16001048684120178 0.6613841652870178 -0.08297061920166016 0.0
0.14833056926727295 0.6478400826454163 -0.08103670179843903 0.0
0.13718102872371674 0.6349108219146729 -0.07920253276824951 0.0
0.12652352452278137 0.6225523948669434 -0.07746104151010513 0.0
0.11632287502288818 0.6107228398323059 -0.07580553740262985 0.0
0.10654786974191666 0.5993877649307251 -0.07423043251037598 0.0
0.09716934710741043 0.5885120630264282 -0.072730153799057 0.0
0.0885433703660965 0.5805723667144775 -0.07160905748605728 0.0
0.0812688022851944 0.5806660652160645 -0.0714920163154602 0.0
0.07401687651872635 0.5807594656944275 -0.07138612121343613 0.0
0.0667852982878685 0.5808525085449219 -0.07129127532243729 0.0
0.05957183614373207 0.5809453725814819 -0.0712074339389801 0.0
0.052374206483364105 0.5810377597808838 -0.07113449275493622 0.0
0.045190248638391495 0.58113032579422 -0.07107245922088623 0.0
0.038017719984054565 0.5812225341796875 -0.07102123647928238 0.0
0.030854452401399612 0.5813148617744446 -0.07098081707954407 0.0
0.023698246106505394 0.5814069509506226 -0.07095114141702652 0.0
0.016546938568353653 0.581498920917511 -0.07093217968940735 0.0
0.009398377500474453 0.5815910696983337 -0.07092398405075073 0.0
0.0022503884974867105 0.5816830992698669 -0.0709264799952507 0.0
-0.004899181425571442 0.5817750096321106 -0.07093966752290726 0.0
-0.01205249410122633 0.5818670988082886 -0.07096359133720398 0.0
-0.019211718812584877 0.5819593071937561 -0.07099827378988266 0.0
-0.026379022747278214 0.5820515155792236 -0.0710437148809433 0.0
-0.03355658799409866 0.5821437835693359 -0.07109995186328888 0.0
-0.040746625512838364 0.5822364687919617 -0.07116705179214478 0.0
-0.047951314598321915 0.5823290348052979 -0.07124502211809158 0.0
-0.05517292767763138 0.582422137260437 -0.07133398205041885 0.0
-0.06241368502378464 0.5825153589248657 -0.07143396139144897 0.0
-0.06967584788799286 0.5826087594032288 -0.07154502719640732 0.0
-0.07696173340082169 0.5827024579048157 -0.07166727632284164 0.0
-0.08427367359399796 0.582796573638916 -0.07180081307888031 0.0
-0.0916140154004097 0.5828909873962402 -0.07194572687149048 0.0
-0.0989852100610733 0.582986056804657 -0.07210217416286469 0.0
-0.10638957470655441 0.5830811858177185 -0.07227019220590591 0.0
-0.11382970213890076 0.5831769108772278 -0.07244998961687088 0.0
-0.1213080957531929 0.5832732915878296 -0.07264170050621033 0.0
-0.1288272887468338 0.5833701491355896 -0.0728454440832138 0.0
-0.13638988137245178 0.5834673047065735 -0.07306137681007385 0.0
-0.1439986675977707 0.583565354347229 -0.07328972965478897 0.0
-0.15165627002716064 0.5836638808250427 -0.07353062927722931 0.0
-0.15936557948589325 0.5837631225585938 -0.07378431409597397 0.0
-0.16712939739227295 0.5838629007339478 -0.07405096292495728 0.0
-0.1749507486820221 0.5839635729789734 -0.07433082163333893 0.0
-0.1828327178955078 0.5840651988983154 -0.07462414354085922 0.0
-0.1907782256603241 0.5841674208641052 -0.07493111491203308 0.0
-0.19879063963890076 0.5842705368995667 -0.07525204867124557 0.0
-0.20687320828437805 0.5843745470046997 -0.0755872130393982 0.0
-0.2150292843580246 0.5844793915748596 -0.07593686878681183 0.0
-0.2232624739408493 0.584585428237915 -0.07630138099193573 0.0
-0.23157638311386108 0.5846925377845764 -0.07668105512857437 0.0
-0.23997458815574646 0.5848004221916199 -0.07707618176937103 0.0
-0.24846124649047852 0.5849098563194275 -0.07748721539974213 0.0
-0.2570401132106781 0.5850202441215515 -0.07791446894407272 0.0
-0.26571547985076904 0.5851319432258606 -0.07835835963487625 0.0
-0.27449148893356323 0.5852447748184204 -0.07881929725408554 0.0
-0.28337275981903076 0.5853590369224548 -0.079297736287117 0.0
-0.2923639118671417 0.5854747891426086 -0.07979416102170944 0.0
-0.30146974325180054 0.5855920314788818 -0.08030904829502106 0.0
-0.31069517135620117 0.5857107043266296 -0.08084289729595184 0.0
-0.3200455904006958 0.5858311057090759 -0.08139628171920776 0.0
-0.32952627539634705 0.5859531164169312 -0.08196975290775299 0.0
-0.33914297819137573 0.5860768556594849 -0.08256391435861588 0.0
-0.3489016592502594 0.5862025618553162 -0.08317942172288895 0.0
-0.35880836844444275 0.5863300561904907 -0.08381692320108414 0.0
-0.3688696622848511 0.5864595770835876 -0.08447712659835815 0.0
-0.3790922164916992 0.5865910649299622 -0.0851607695221901 0.0
-0.38948315382003784 0.5867247581481934 -0.08586864173412323 0.0
-0.4000500738620758 0.5868609547615051 -0.08660160005092621 0.0
-0.4108003079891205 0.5869991183280945 -0.0873604416847229 0.0
-0.42174243927001953 0.5871400237083435 -0.0881461650133133 0.0
-0.43288493156433105 0.5872835516929626 -0.0889597162604332 0.0
-0.4442366659641266 0.5874296426773071 -0.0898020938038826 0.0
-0.45580723881721497 0.5875785946846008 -0.09067440032958984 0.0
-0.46760645508766174 0.5877302885055542 -0.09157776832580566 0.0
-0.4796451926231384 0.5878853797912598 -0.09251347184181213 0.0
-0.4919341802597046 0.5880434513092041 -0.09348272532224655 0.0
-0.5044854879379272 0.588205099105835 -0.09448695927858353 0.0
-0.5173112750053406 0.5883702039718628 -0.09552757441997528 0.0
-0.5304246544837952 0.5885390043258667 -0.09660610556602478 0.0
-0.5438395142555237 0.5887115001678467 -0.09772418439388275 0.0
-0.5575708746910095 0.58888840675354 -0.09888360649347305 0.0
-0.57163405418396 0.5890694856643677 -0.10008614510297775 0.0
-0.586045503616333 0.5892548561096191 -0.10133375972509384 0.0
-0.6008232831954956 0.5894452333450317 -0.10262861102819443 0.0
-0.6159855127334595 0.5896401405334473 -0.10397281497716904 0.0
-0.631553053855896 0.5898406505584717 -0.10536890476942062 0.0
-0.6475464701652527 0.5900464057922363 -0.10681929439306259 0.0
-0.6639890074729919 0.5902580618858337 -0.10832679271697998 0.0
-0.680904746055603 0.5904756784439087 -0.10989425331354141 0.0
-0.6983202695846558 0.590700089931488 -0.11152490228414536 0.0
-0.716262936592102 0.5909311175346375 -0.11322199553251266 0.0
-0.7347627878189087 0.5911691784858704 -0.11498913913965225 0.0
-0.7589854001998901 0.5954418778419495 -0.11762577295303345 0.0
-0.7862538695335388 0.601373016834259 -0.12069722265005112 0.0
-0.814988911151886 0.6076229810714722 -0.12395257502794266 0.0
-0.8453214168548584 0.6142202615737915 -0.12740813195705414 0.0
-0.8773992657661438 0.621197521686554 -0.13108234107494354 0.0
-0.9113868474960327 0.6285898685455322 -0.13499566912651062 0.0
-0.9474725127220154 0.6364388465881348 -0.13917161524295807 0.0
-0.9858676195144653 0.64478999376297 -0.14363647997379303 0.0
-1.0268142223358154 0.6536960601806641 -0.14842048287391663 0.0
-1.0705891847610474 0.6632173657417297 -0.15355812013149261 0.0
-1.1175105571746826 0.6734228134155273 -0.15908905863761902 0.0
-1.189439058303833 0.6969871520996094 -0.1680966466665268 0.0
-1.318461298942566 0.7509788870811462 -0.18501226603984833 0.0
1.219041347503662 -0.007490876596421003 -0.1059175580739975 0.0
1.2171144485473633 0.0074790362268686295 -0.10575014352798462 0.0
1.2206679582595825 0.022504881024360657 -0.10607490688562393 0.0
0.24397911131381989 0.7587565779685974 -0.06924834102392197 0.0
0.22803427278995514 0.7402662038803101 -0.06729993969202042 0.0
0.21296021342277527 0.7227863073348999 -0.06546789407730103 0.0
0.19868290424346924 0.7062300443649292 -0.06374228000640869 0.0
0.18513672053813934 0.6905210614204407 -0.062114376574754715 0.0
0.17226360738277435 0.6755934953689575 -0.06057657673954964 0.0
0.16001057624816895 0.6613845229148865 -0.0591217465698719 0.0
0.14833059906959534 0.6478402018547058 -0.05774368718266487 0.0
0.13718105852603912 0.6349109411239624 -0.056436728686094284 0.0
0.12652340531349182 0.6225518584251404 -0.05519574508070946 0.0
0.11632301658391953 0.6107235550880432 -0.05401621386408806 0.0
0.10654788464307785 0.5993878841400146 -0.05289379879832268 0.0
0.09716944396495819 0.588512659072876 -0.05182480067014694 0.0
0.08854334056377411 0.5805721879005432 -0.0510258749127388 0.0
0.08126875013113022 0.5806657075881958 -0.05094246193766594 0.0
0.07401682436466217 0.5807590484619141 -0.050867002457380295 0.0
0.06678525358438492 0.5808520913124084 -0.0507994182407856 0.0
0.05957179516553879 0.5809449553489685 -0.050739679485559464 0.0
0.05237418785691261 0.5810375213623047 -0.05068771913647652 0.0
0.0451902337372303 0.5811300873756409 -0.05064351484179497 0.0
0.03801770880818367 0.5812223553657532 -0.050607018172740936 0.0
0.03085443750023842 0.5813146233558655 -0.05057821050286293 0.0
0.0236982349306345 0.5814067125320435 -0.05055706202983856 0.0
0.016546931117773056 0.5814986228942871 -0.05054355785250664 0.0
0.00939837098121643 0.5815907120704651 -0.050537701696157455 0.0
0.002250386867672205 0.5816826820373535 -0.05053947865962982 0.0
-0.004899178631603718 0.5817746520042419 -0.05054888129234314 0.0
-0.012052489444613457 0.5818668007850647 -0.0505659393966198 0.0
-0.019211700186133385 0.5819587111473083 -0.050590626895427704 0.0
-0.02637900970876217 0.5820512175559998 -0.05062302574515343 0.0
-0.03355657681822777 0.5821436047554016 -0.05066310614347458 0.0
-0.04074658825993538 0.5822359323501587 -0.05071089416742325 0.0
-0.04795129597187042 0.5823287963867188 -0.0507664754986763 0.0
-0.05517289415001869 0.5824217796325684 -0.05082985758781433 0.0
-0.06241362914443016 0.5825148820877075 -0.05090108513832092 0.0
-0.06967578828334808 0.5826082825660706 -0.05098022520542145 0.0
-0.07696168124675751 0.5827020406723022 -0.05106734111905098 0.0
-0.08427361398935318 0.5827961564064026 -0.05116249620914459 0.0
-0.09161398559808731 0.5828908085823059 -0.05126577615737915 0.0
-0.09898513555526733 0.5829856395721436 -0.05137723684310913 0.0
-0.10638953000307083 0.5830808877944946 -0.051496975123882294 0.0
-0.11382965743541718 0.5831766724586487 -0.0516250915825367 0.0
-0.12130800634622574 0.5832728743553162 -0.0517616793513298 0.0
-0.12882716953754425 0.5833696126937866 -0.051906850188970566 0.0
-0.136389821767807 0.5834670066833496 -0.05206073820590973 0.0
-0.14399856328964233 0.5835649371147156 -0.05222344025969505 0.0
-0.1516561508178711 0.5836634039878845 -0.05239509418606758 0.0
-0.1593654304742813 0.5837625861167908 -0.05257585272192955 0.0
-0.16712933778762817 0.5838627219200134 -0.05276588350534439 0.0
-0.17495065927505493 0.5839632749557495 -0.05296529084444046 0.0
-0.1828325390815735 0.5840646624565125 -0.05317428335547447 0.0
-0.19077809154987335 0.584166944026947 -0.05339302867650986 0.0
-0.19879046082496643 0.5842700004577637 -0.05362170562148094 0.0
-0.20687304437160492 0.5843740701675415 -0.05386053025722504 0.0
-0.21502913534641266 0.584479033946991 -0.05410969257354736 0.0
-0.22326229512691498 0.5845849514007568 -0.054369423538446426 0.0
-0.23157623410224915 0.5846921801567078 -0.05463997274637222 0.0
-0.2399744838476181 0.5848001837730408 -0.05492153763771057 0.0
-0.2484610229730606 0.5849093198776245 -0.055214401334524155 0.0
-0.2570399045944214 0.5850197672843933 -0.055518846958875656 0.0
-0.26571524143218994 0.5851314067840576 -0.055835142731666565 0.0
-0.2744913399219513 0.5852444767951965 -0.05616360530257225 0.0
-0.2833726406097412 0.5853587985038757 -0.05650453642010689 0.0
-0.2923637628555298 0.5854745507240295 -0.05685826390981674 0.0
-0.30146947503089905 0.5855915546417236 -0.05722513049840927 0.0
-0.31069502234458923 0.5857104063034058 -0.057605545967817307 0.0
-0.3200454115867615 0.585830807685852 -0.0579998679459095 0.0
-0.32952600717544556 0.585952639579773 -0.05840848386287689 0.0
-0.3391427993774414 0.586076557636261 -0.05883187800645828 0.0
-0.3489013612270355 0.586202085018158 -0.059270452708005905 0.0
-0.35880815982818604 0.5863296985626221 -0.05972471833229065 0.0
-0.3688693046569824 0.5864589810371399 -0.060195133090019226 0.0
-0.37909191846847534 0.5865906476974487 -0.060682281851768494 0.0
-0.3894830048084259 0.5867245197296143 -0.06118670850992203 0.0
-0.4000498056411743 0.5868605375289917 -0.0617089718580246 0.0
-0.4108000099658966 0.586998701095581 -0.06224969029426575 0.0
-0.42174217104911804 0.5871396064758301 -0.06280956417322159 0.0
-0.4328845739364624 0.5872830748558044 -0.06338925659656525 0.0
-0.4442363679409027 0.5874292254447937 -0.06398951262235641 0.0
-0.45580679178237915 0.5875779986381531 -0.06461107730865479 0.0
-0.46760621666908264 0.5877299904823303 -0.065254807472229 0.0
-0.4796448051929474 0.5878849029541016 -0.06592153757810593 0.0
-0.49193382263183594 0.5880430340766907 -0.06661219149827957 0.0
-0.504485011100769 0.588204562664032 -0.06732775270938873 0.0
-0.5173107385635376 0.588369607925415 -0.06806925684213638 0.0
-0.5304242968559265 0.5885385870933533 -0.06883779913187027 0.0
-0.5438390970230103 0.5887110233306885 -0.06963448971509933 0.0
-0.5575703382492065 0.5888878107070923 -0.07046063244342804 0.0
-0.5716334581375122 0.5890688896179199 -0.07131751626729965 0.0
-0.5860449075698853 0.5892543196678162 -0.0722065195441246 0.0
-0.6008227467536926 0.5894446969032288 -0.07312918454408646 0.0
-0.615985095500946 0.5896397829055786 -0.07408703863620758 0.0
-0.6315523386001587 0.5898400545120239 -0.07508180290460587 0.0
-0.6475458741188049 0.5900458693504333 -0.07611530274152756 0.0
-0.6639885306358337 0.5902576446533203 -0.07718950510025024 0.0
-0.6809041500091553 0.5904752016067505 -0.0783063992857933 0.0
-0.6983194351196289 0.5906994342803955 -0.07946831732988358 0.0
-0.7162619829177856 0.5909303426742554 -0.0806775838136673 0.0
-0.7347620129585266 0.5911685228347778 -0.0819368064403534 0.0
-0.7589844465255737 0.5954411625862122 -0.0838155597448349 0.0
-0.786252498626709 0.6013719439506531 -0.0860041081905365 0.0
-0.8149877786636353 0.6076221466064453 -0.08832377940416336 0.0
-0.8453201651573181 0.6142193675041199 -0.09078606218099594 0.0
-0.877397358417511 0.6211961507797241 -0.09340409934520721 0.0
-0.9113855361938477 0.6285889744758606 -0.09619265049695969 0.0
-0.9474706053733826 0.6364375948905945 -0.09916820377111435 0.0
-0.9858652949333191 0.6447884440422058 -0.1023496612906456 0.0
-1.0268117189407349 0.6536944508552551 -0.10575854033231735 0.0
-1.0705865621566772 0.663215696811676 -0.10941941291093826 0.0
-1.117507815361023 0.6734212040901184 -0.11336053907871246 0.0
-1.1894320249557495 0.6969830393791199 -0.1197785809636116 0.0
-1.3184524774551392 0.7509738802909851 -0.1318318396806717 0.0
-3.8961386680603027 -0.39056235551834106 -0.2037983238697052 0.0
-3.8967628479003906 -0.43905800580978394 -0.20409780740737915 0.0
-3.897388458251953 -0.48770374059677124 -0.20442909002304077 0.0
-3.898016929626465 -0.5365151166915894 -0.20479245483875275 0.0
-3.8986477851867676 -0.5855077505111694 -0.20518817007541656 0.0
-3.899280071258545 -0.6346973180770874 -0.20561645925045013 0.0
-3.899916887283325 -0.6841004490852356 -0.20607782900333405 0.0
-3.900554895401001 -0.7337329983711243 -0.20657247304916382 0.0
-3.9011974334716797 -0.7836121916770935 -0.20710089802742004 0.0
-3.9018425941467285 -0.8337546586990356 -0.20766344666481018 0.0
-3.902491331100464 -0.8841779232025146 -0.20826059579849243 0.0
-3.903144121170044 -0.9348997473716736 -0.2088928371667862 0.0
-3.9038007259368896 -0.9859381318092346 -0.20956066250801086 0.0
-3.9044618606567383 -1.0373116731643677 -0.2102646380662918 0.0
-3.905128002166748 -1.0890395641326904 -0.21100537478923798 0.0
-3.9057986736297607 -1.1411410570144653 -0.21178342401981354 0.0
-3.9064741134643555 -1.1936359405517578 -0.21259944140911102 0.0
-3.9071550369262695 -1.2465451955795288 -0.21345415711402893 0.0
-3.907841205596924 -1.2998894453048706 -0.21434825658798218 0.0
-3.9085335731506348 -1.3536906242370605 -0.21528252959251404 0.0
-3.9092323780059814 -1.4079713821411133 -0.21625781059265137 0.0
-3.9099373817443848 -1.462754249572754 -0.21727491915225983 0.0
-3.910649299621582 -1.5180634260177612 -0.21833477914333344 0.0
-3.911367893218994 -1.573923110961914 -0.2194383144378662 0.0
-3.9120943546295166 -1.6303589344024658 -0.22058656811714172 0.0
-3.912828207015991 -1.6873972415924072 -0.22178055346012115 0.0
-3.9135706424713135 -1.7450653314590454 -0.22302143275737762 0.0
-3.9143214225769043 -1.8033909797668457 -0.22431033849716187 0.0
-3.9150803089141846 -1.8624035120010376 -0.22564846277236938 0.0
-3.9158496856689453 -1.9221338033676147 -0.2270372062921524 0.0
-3.916627883911133 -1.98261296749115 -0.2284778505563736 0.0
-3.9174160957336426 -2.0438735485076904 -0.22997182607650757 0.0
-3.918215036392212 -2.105950355529785 -0.23152068257331848 0.0
-3.919025182723999 -2.1688785552978516 -0.23312601447105408 0.0
-3.9198460578918457 -2.2326948642730713 -0.2347894161939621 0.0
-0.4775119125843048 -3.9928128719329834 -0.20929446816444397 0.0
-0.3783605694770813 -3.9940884113311768 -0.20881065726280212 0.0
-0.3289417028427124 -3.994724988937378 -0.20861682295799255 0.0
-0.27960705757141113 -3.995359420776367 -0.20845475792884827 0.0
-0.23034155368804932 -3.9959936141967773 -0.2083244025707245 0.0
-0.18113020062446594 -3.996626615524292 -0.20822562277317047 0.0
-0.13195806741714478 -3.9972596168518066 -0.20815838873386383 0.0
-0.08281027525663376 -3.997892141342163 -0.2081226110458374 0.0
-0.03367194905877113 -3.9985246658325195 -0.20811827480793 0.0
0.015471750870347023 -3.999156951904297 -0.2081453651189804 0.0
0.06463567912578583 -3.9997899532318115 -0.20820392668247223 0.0
0.11383470892906189 -4.000422954559326 -0.20829397439956665 0.0
0.1630837470293045 -4.001056671142578 -0.20841559767723083 0.0
0.21239779889583588 -4.0016913414001465 -0.20856888592243195 0.0
0.2617918848991394 -4.002326965332031 -0.20875394344329834 0.0
0.3112812042236328 -4.002964019775391 -0.20897091925144196 0.0
0.3608810603618622 -4.003602504730225 -0.2092200070619583 0.0
0.4106067419052124 -4.004242420196533 -0.20950134098529816 0.0
0.460473895072937 -4.004884243011475 -0.20981517434120178 0.0
0.5104982256889343 -4.005527973175049 -0.2101617157459259 0.0
0.5606957077980042 -4.006174087524414 -0.21054129302501678 0.0
0.6110824346542358 -4.00682258605957 -0.21095412969589233 0.0
0.6616747975349426 -4.007473468780518 -0.2114005833864212 0.0
0.7124894857406616 -4.008127689361572 -0.21188101172447205 0.0
0.7635433077812195 -4.008784294128418 -0.21239575743675232 0.0
0.8148537278175354 -4.0094451904296875 -0.21294529736042023 0.0
0.866438090801239 -4.0101094245910645 -0.21353000402450562 0.0
0.9183142781257629 -4.010776519775391 -0.2141503393650055 0.0
0.9705007672309875 -4.011448383331299 -0.21480685472488403 0.0
1.023016095161438 -4.012124061584473 -0.21550002694129944 0.0
1.0758793354034424 -4.01280403137207 -0.21623045206069946 0.0
1.1291104555130005 -4.013489246368408 -0.21699874103069305 0.0
1.1827292442321777 -4.014179229736328 -0.21780553460121155 0.0
1.236756443977356 -4.0148749351501465 -0.21865150332450867 0.0
1.2912131547927856 -4.015575408935547 -0.21953731775283813 0.0
1.3461214303970337 -4.016282558441162 -0.2204638123512268 0.0
1.4015034437179565 -4.016995429992676 -0.22143174707889557 0.0
1.4573819637298584 -4.017714023590088 -0.2224419116973877 0.0
1.5137816667556763 -4.018439769744873 -0.2234952747821808 0.0
1.5707266330718994 -4.019172668457031 -0.22459276020526886 0.0
1.6282423734664917 -4.019913196563721 -0.22573533654212952 0.0
1.6863549947738647 -4.020660877227783 -0.22692401707172394 0.0
1.7450917959213257 -4.021416664123535 -0.22815994918346405 0.0
1.804481029510498 -4.022181034088135 -0.2294442504644394 0.0
1.8645519018173218 -4.02295446395874 -0.23077815771102905 0.0
1.9253344535827637 -4.023736953735352 -0.2321629375219345 0.0
1.9868600368499756 -4.024528503417969 -0.23359991610050201 0.0
3.487550973892212 -0.36564698815345764 -0.18251119554042816 0.0
3.488107442855835 -0.3224201500415802 -0.18231916427612305 0.0
3.1899988651275635 -0.25536876916885376 -0.16656075417995453 0.0
3.1490776538848877 -0.21318022906780243 -0.1642749309539795 0.0
3.1092581748962402 -0.1721278429031372 -0.16207510232925415 0.0
3.070485830307007 -0.1321544647216797 -0.15995727479457855 0.0
3.0327084064483643 -0.0932064801454544 -0.15791766345500946 0.0
2.9958763122558594 -0.05523356422781944 -0.15595263242721558 0.0
2.983647584915161 -0.018334191292524338 -0.1552926003932953 0.0
2.9844863414764404 0.01833934523165226 -0.15533626079559326 0.0
2.985325574874878 0.055039048194885254 -0.15540340542793274 0.0
2.98616623878479 0.0917760580778122 -0.15549413859844208 0.0
2.9870071411132812 0.12856152653694153 -0.15560846030712128 0.0
2.9878499507904053 0.1654067039489746 -0.15574650466442108 0.0
2.988694190979004 0.20232288539409637 -0.15590834617614746 0.0
2.9895405769348145 0.2393215000629425 -0.15609414875507355 0.0
2.990388870239258 0.2764139771461487 -0.1563040167093277 0.0
2.991239309310913 0.3136119246482849 -0.15653811395168304 0.0
2.992093563079834 0.3509272336959839 -0.1567966789007187 0.0
2.9929494857788086 0.3883715271949768 -0.1570798009634018 0.0
2.993809223175049 0.4259570837020874 -0.15738779306411743 0.0
2.9946720600128174 0.4636959731578827 -0.15772084891796112 0.0
2.9955391883850098 0.5016006827354431 -0.15807925164699554 0.0
2.9964098930358887 0.5396837592124939 -0.1584632694721222 0.0
2.9972856044769287 0.5779582262039185 -0.15887321531772614 0.0
2.9981658458709717 0.6164370775222778 -0.15930944681167603 0.0
2.9990508556365967 0.6551335453987122 -0.15977223217487335 0.0
2.999941110610962 0.6940614581108093 -0.16026198863983154 0.0
3.0008368492126465 0.7332346439361572 -0.16077911853790283 0.0
3.0017385482788086 0.772667407989502 -0.16132403910160065 0.0
3.0026466846466064 0.812374472618103 -0.161897212266922 0.0
3.003561496734619 0.8523707389831543 -0.1624990999698639 0.0
3.004483461380005 0.8926717042922974 -0.16313022375106812 0.0
3.0054128170013428 0.9332931637763977 -0.16379110515117645 0.0
3.0063493251800537 0.9742510318756104 -0.16448228061199188 0.0
3.007293939590454 1.0155622959136963 -0.16520436108112335 0.0
3.0082473754882812 1.0572444200515747 -0.16595801711082458 0.0
3.009209394454956 1.09931480884552 -0.16674385964870453 0.0
3.010181188583374 1.1417921781539917 -0.16756263375282288 0.0
3.011162519454956 1.1846951246261597 -0.16841503977775574 0.0
3.0121536254882812 1.2280433177947998 -0.169301837682724 0.0
3.013155698776245 1.2718571424484253 -0.1702238917350769 0.0
3.039585828781128 1.3272560834884644 -0.17262552678585052 0.0
3.090146541595459 1.3947978019714355 -0.1764572262763977 0.0
3.1430113315582275 1.4654169082641602 -0.18049079179763794 0.0
3.198357105255127 1.539351224899292 -0.1847415715456009 0.0
0.24398377537727356 0.7587711215019226 -0.041483115404844284 0.0
0.22803883254528046 0.7402810454368591 -0.04031596705317497 0.0
0.21296408772468567 0.7227994203567505 -0.03921840712428093 0.0
0.1986866295337677 0.7062432169914246 -0.03818470239639282 0.0
0.18514016270637512 0.6905339360237122 -0.03720950707793236 0.0
0.17226676642894745 0.6756058931350708 -0.03628828004002571 0.0
0.16001352667808533 0.6613966822624207 -0.03541676700115204 0.0
0.14833307266235352 0.6478509902954102 -0.0345911830663681 0.0
0.13718338310718536 0.6349217295646667 -0.03380826488137245 0.0
0.12652558088302612 0.6225625276565552 -0.033064864575862885 0.0
0.11632494628429413 0.610733687877655 -0.03235825151205063 0.0
0.10654973983764648 0.5993982553482056 -0.03168589621782303 0.0
0.09717098623514175 0.5885219573974609 -0.031045466661453247 0.0
0.08854391425848007 0.5805759429931641 -0.030566588044166565 0.0
0.0812692791223526 0.5806695222854614 -0.030516620725393295 0.0
0.07401731610298157 0.5807629227638245 -0.030471421778202057 0.0
0.06678569316864014 0.5808558464050293 -0.030430933460593224 0.0
0.05957217887043953 0.5809487104415894 -0.0303951445966959 0.0
0.05237452685832977 0.5810412764549255 -0.0303640179336071 0.0
0.045190513134002686 0.5811336636543274 -0.030337529256939888 0.0
0.03801793232560158 0.5812258124351501 -0.030315658077597618 0.0
0.030854616314172745 0.5813179612159729 -0.030298396944999695 0.0
0.023698370903730392 0.5814100503921509 -0.030285729095339775 0.0
0.016547031700611115 0.5815021395683289 -0.030277647078037262 0.0
0.009398425929248333 0.5815941095352173 -0.030274132266640663 0.0
0.002250399673357606 0.5816860198974609 -0.030275192111730576 0.0
-0.004899207502603531 0.5817780494689941 -0.03028082847595215 0.0
-0.012052553705871105 0.5818699598312378 -0.030291033908724785 0.0
-0.01921180821955204 0.581961989402771 -0.030305828899145126 0.0
-0.026379145681858063 0.5820542573928833 -0.030325226485729218 0.0
-0.033556755632162094 0.5821467041969299 -0.030349239706993103 0.0
-0.04074681177735329 0.5822390913963318 -0.030377868562936783 0.0
-0.04795154184103012 0.5823318362236023 -0.03041115775704384 0.0
-0.05517318844795227 0.5824248194694519 -0.03044912964105606 0.0
-0.062413956969976425 0.5825179219245911 -0.030491793528199196 0.0
-0.06967616081237793 0.5826113820075989 -0.03053920716047287 0.0
-0.07696208357810974 0.5827051401138306 -0.030591389164328575 0.0
-0.08427403122186661 0.5827990174293518 -0.030648380517959595 0.0
-0.09161439538002014 0.5828933715820312 -0.030710237100720406 0.0
-0.09898560494184494 0.5829883813858032 -0.030777012929320335 0.0
